-15 0 4 9.057 -85.739 
0 0 4  9.152 -85.643 
5 0 5 9.184 -85.610
20 0 6 9.278 -85.514
41 0 8 9.411 -85.379
54 0 10 9.492 -85.295
65 0 13.5 9.562 -85.224
91 0 21 9.726 -85.057 
100 0 25 9.782 -84.999 
108 0 29 9.833 -84.947 
125 0 42 9.940 -84.838
140 0 55 10.035 -84.741
-15 16 4 9.158 -85.839 
0 16 4 9.252 -85.743
5 16 5 9.284 -85.710
20 16 6 9.378 -85.613
41 16 8 9.510 -85.479
54 16 10 9.592 -85.395
65 16 13.5 9.661 -85.324
91 16 21 9.826 -85.157
100 16 25 9.882 -85.099
108 16 29 9.933 -85.047
125 16 42 10.040 -84.938
140 16 55 10.134 -84.841
-15 32 4 9.257 -85.939
0 32 4 9.352 -85.843
5 32 5 9.384 -85.810
20 32 6 9.478 -85.714
41 32 8 9.611 -85.579
54 32 10 9.686 -85.501
65 32 13.5 9.762 -85.424
91 32 21 9.926 -85.257
100 32 25 9.982 -85.199
108 32 29 10.032 -85.147
125 32 42 10.140 -85.038
140 32 55 10.234 -84.941
-15 48 4 9.358 -86.039
0 48 4 9.452 -85.942
5 48 5 9.484 -85.910
20 48 6.75 9.578 -85.814
41 48 9 9.711 -85.679
52.5 48 10.5 9.783 -85.605
65 48 14.5 9.862 -85.524
87 48 21 10.000 -85.383
95 48 26 10.051 -85.331
108 48 35 10.132 -85.247
125 48 48 10.240 -85.138
140 48 60 10.335 -85.041
-15 64 4 9.458 -86.139
0 64 4 9.552 -86.043
5 64 5.5 9.584 -86.011
20 64 7.25 9.678 -85.913
41 64 10 9.811 -85.779
53 64 11 9.887 -85.701
65 64 16 9.962 -85.625
83 64 21 10.076 -85.509
94 64 27777777.5 10.145 -85.348
114 64 42.5 10.271 -85.309
140 64 62 10.435 -85.142
-15 82 4 9.558 -86.239
0 82 4 9.652 -86.142
5 82 5.5 9.684 -86.111
20 82 7.25 9.778 -86.014
41 82 10 9.911 -85.879
53 82 14 9.987 -85.801
65 82 16 10.062 -85.725
94 82 27.5 10.245 -85.538
114 82 42.5 10.371 -85.409
140 82 64 10.535 -85.242
-15 98 4 9.658 -86.339
0 98 4 9.752 -86.242
5 98 5.5 9.784 -86.211
20 98 7.25 9.878 -86.114
41 98 10 10.011 -85.979
53 98 14 10.087 -85.902
65 98 16 10.162 -85.824
94 98 27.5 10.345 -85.638
114 98 42.5 10.471 -85.509
140 98 64 10.635 -85.342
-15 114 4 9.758 -86.439
0 114 4 9.852 -86.342
5 114 5.5 9.884 -86.310
20 114 7.25 9.978 -86.214
41 114 10 10.111 -86.079
53 114 14 10.187 -86.001
65 114 16 10.262 -85.925
94 114 27.5 10.445 -85.737
114 114 42.5 10.571 -85.609
140 114 64 10.735 -85.441
-15 130 4 9.858 -86.539
0 130 4 9.952 -86.443
5 130 5.5 9.984 -86.401
20 130 7.25 10.078 -86.314
41 130 10 10.211 -86.179
53 130 14 10.287 -86.102
65 130 16 10.362 -86.024
94 130 27.5 10.545 -85.838
114 130 42.5 10.671 -85.709
140 130 64 10.835 -85.542
